ply
format ascii 1.0
element vertex 1211
property float x
property float y
property float z
property uint8 red
property uint8 green
property uint8 blue
end_header
-6.805394 -3.155750 -0.226783 192 179 166
1.416421 -3.411692 -0.367159 0 0 0
13.537867 -4.239748 -26.123022 195 172 154
1.322277 -6.425821 0.499267 42 33 28
-49.230152 -44.322140 -71.422798 0 0 0
-7.772574 -5.279349 2.509966 207 193 180
4.674160 4.008087 1.684150 183 167 142
-9.843334 2.557662 1.425314 183 213 222
1.418788 1.647687 0.889706 0 0 0
2.603158 -5.049109 2.993746 193 177 166
-3.357642 -3.302211 0.404067 100 97 108
-2.794556 0.768905 0.183493 139 132 148
1.003842 2.060568 0.339837 95 77 66
1.539060 -4.851907 3.032266 196 178 168
0.602764 5.884278 1.585766 254 243 217
-2.844655 0.645097 -0.320145 55 49 35
1.096755 -7.192153 1.478557 199 195 186
-3.209034 0.302247 -0.234130 117 95 71
-2.759553 -4.032007 -0.447680 32 31 26
-7.209222 -4.118473 2.591090 112 102 90
-2.462539 2.718824 0.361985 72 73 75
-4.945438 -3.634489 2.657023 110 107 95
-2.567248 2.885331 2.950589 84 72 60
-3.840153 -2.746895 0.182856 0 0 0
-3.684147 -1.595300 -0.128625 77 39 40
-4.118369 -1.922383 -0.097354 217 188 182
-2.645125 3.146570 -0.118372 29 38 69
-3.932519 3.832508 2.731339 173 148 126
1.439987 -6.479807 2.911133 221 203 193
-9.198622 -3.981784 2.065155 235 222 205
1.427096 -5.620982 2.343871 0 0 0
-6.845082 -3.407585 -0.318962 58 29 0
-4.969958 9.453031 2.930361 183 162 143
-3.892391 2.138415 0.781162 157 142 149
0.399076 2.831798 -0.395797 196 194 138
1.635861 -0.020181 -0.497114 142 128 127
-3.826592 -7.858495 1.146754 190 199 199
-3.137539 -3.878732 -0.258391 233 204 196
-3.027443 -7.284951 1.736832 252 242 235
8.095942 7.721885 10.205761 0 0 0
-3.737452 -3.372195 2.678650 106 98 85
0.528875 7.862773 3.107290 229 218 198
-1.118999 7.439324 0.886172 247 207 192
-9.334092 5.151668 0.685811 180 173 165
-2.613375 0.091227 -0.282539 75 32 30
-2.835739 1.572768 -0.559059 0 0 0
3.482927 0.553738 2.991274 243 235 233
-3.141518 7.352404 0.823869 172 147 127
-2.046473 1.440136 3.052809 206 187 173
-2.669681 6.924133 3.493108 142 128 119
1.872113 3.013132 2.945585 148 130 106
0.144249 3.367408 -0.019562 167 106 59
-0.133583 7.093355 0.268281 165 111 75
1.776520 -0.781049 -0.492467 87 73 72
-3.288910 -3.309836 -0.482183 159 81 83
4.052986 -3.451036 3.246237 240 234 234
3.425781 -5.647258 3.115964 0 0 0
-5.886463 10.683652 -0.261446 130 74 43
-0.055626 4.582490 0.840584 153 149 166
-1.883608 11.328004 3.521600 241 223 205
2.998954 2.689404 3.383587 191 175 157
-2.227020 2.678083 2.982971 183 162 143
-3.841032 2.082036 2.678483 0 0 0
-2.644360 2.657863 2.923407 231 212 195
-2.862167 1.358843 -0.462865 208 192 166
0.549669 9.269984 1.228042 136 127 118
-3.738720 -1.822976 1.384760 239 231 220
0.263393 3.188016 -0.336353 205 174 120
-2.113338 1.706082 2.987296 192 173 156
0.030525 10.917922 1.686082 218 198 171
0.617314 -1.819253 3.204776 228 223 219
3.377914 -3.403301 -0.348722 36 12 0
-6.566891 8.719751 3.065785 209 198 194
2.630649 9.787408 -0.550404 56 50 38
0.942147 0.208871 1.231491 241 222 212
0.171131 10.272891 3.156880 250 225 203
5.480877 2.366876 0.489293 213 196 176
-1.967326 -4.458589 -0.900170 78 71 65
-2.870728 1.430179 -0.265254 206 188 166
-0.662286 -6.746511 2.682568 150 134 121
-5.331068 2.396927 2.836778 175 166 157
4.663601 -4.285707 1.514643 0 0 0
-1.131145 8.011498 2.210440 227 213 193
-4.087256 2.659831 2.726669 205 190 171
-3.637232 -7.777706 1.300093 104 123 110
-2.131909 8.808651 3.288640 210 189 168
-2.559700 2.372608 0.493456 221 203 187
-3.838596 1.877043 0.843802 112 101 109
-3.136219 -4.349535 -0.258976 117 53 53
-5.690870 -0.142215 2.626461 190 181 169
-5.770925 -0.179898 2.665216 190 181 169
1.410131 -3.525841 -0.140074 205 196 189
-4.054804 1.806091 2.649016 250 229 207
0.134722 4.017576 3.053801 213 194 177
-28.904408 -33.419479 -44.273907 0 0 0
-8.137488 9.848764 3.145653 232 216 205
-8.461328 2.366766 1.969573 175 162 150
-2.249882 5.678858 3.015311 203 182 163
0.631929 3.048506 0.403364 191 175 155
-3.018698 1.278596 -0.411816 88 72 47
-1.604782 5.539339 -0.313811 156 139 132
-3.367345 2.659076 2.838192 209 191 170
-1.403824 -2.276441 -0.392102 175 95 100
-3.192590 3.113251 2.874583 100 84 69
0.868689 0.193693 3.047529 253 248 228
-5.435685 6.875525 1.189188 122 109 99
1.781162 -1.732686 0.974334 158 144 131
0.884232 -6.975124 1.831643 81 76 67
-3.011387 1.288082 -0.823428 91 94 77
-1.585828 10.835135 3.382617 244 231 214
-6.780661 7.290347 2.967933 201 188 180
1.706416 0.093060 0.827240 116 102 94
-3.696724 -2.218414 0.110513 234 216 176
-2.344059 2.814560 2.921222 212 191 172
-3.668127 0.247164 -0.374780 214 202 186
0.546179 4.955509 3.257786 253 249 234
2.384696 -3.430384 -0.471173 95 85 84
-3.829818 -2.401608 0.153784 212 190 166
2.420352 -2.930669 3.111637 214 192 171
-0.277585 6.795545 2.651865 208 192 174
-3.972580 3.010394 2.874847 156 144 130
-1.849787 13.323182 3.599925 251 236 223
1.404934 -3.322976 0.083294 60 132 191
-5.567695 -5.970884 -10.080429 0 0 0
-2.977222 2.994580 0.470162 97 91 107
0.560673 2.513045 -0.434310 169 164 135
-2.497511 2.283140 0.541854 195 183 167
-3.654633 -3.764936 0.697674 178 178 177
-0.035780 4.716306 -0.481198 72 59 52
0.597414 5.525873 0.578108 83 64 60
2.258291 -3.664507 0.024819 98 93 86
0.486158 3.969390 0.421987 165 117 80
-3.847319 -2.494911 0.155900 236 208 197
-3.146164 4.378011 0.130690 189 181 191
2.719191 -3.766238 -0.615003 87 43 2
-1.750756 3.117911 2.900150 108 100 89
-3.814574 7.494963 2.500152 219 197 176
-2.802588 2.944813 4.063770 115 93 79
1.508937 -3.266412 -0.672006 57 126 192
-3.669105 1.414232 0.784366 101 95 106
-3.718477 -2.026837 -0.212786 175 136 138
-0.891679 4.457031 3.130125 181 155 138
4.368779 2.897332 0.245677 12 15 8
0.931482 3.349035 -0.256049 140 79 48
1.486894 -3.484494 0.199053 100 136 196
1.413735 -5.933362 -0.945025 128 113 109
4.531113 2.330941 -0.375802 30 3 0
4.022277 0.197112 2.420006 85 75 63
-9.150103 -4.551496 2.163367 196 185 169
2.255236 -3.391222 -0.596966 40 43 37
-4.214956 -2.393993 0.330926 121 113 124
4.331432 0.211220 3.106418 150 137 119
1.467733 0.191443 -0.368004 127 123 112
-11.555392 -16.183208 3.468575 217 195 195
-4.795891 8.601193 1.659110 233 210 192
1.220886 1.615139 -0.523931 160 109 67
-8.638477 -5.940582 2.045676 235 219 204
-4.367548 -8.000489 1.006985 113 116 107
-5.393334 4.020328 2.833729 236 216 205
-5.711138 -3.093053 0.653879 114 105 99
1.565321 1.058552 2.816538 207 187 163
-2.969869 3.996507 0.209456 33 51 75
-3.291949 0.921936 -0.168488 83 71 58
2.076773 -3.419529 -0.529498 90 103 126
1.846138 -1.681999 -0.622283 58 50 47
-0.015739 0.919514 3.448259 193 178 173
-2.923104 0.999893 0.213775 169 163 139
-1.115757 3.230530 2.713445 122 105 89
-3.599111 -3.731823 0.865717 108 106 94
6.446013 -4.336344 1.985947 224 140 142
-3.767987 3.864950 0.736585 0 0 0
-2.490147 3.868791 0.624732 156 139 119
0.469345 1.947709 -0.512410 48 46 38
1.611213 -2.131336 0.831350 175 156 119
-3.785034 5.165334 3.221639 176 154 133
-1.231968 -3.894610 -0.790707 11 12 0
-2.411025 -4.580335 -0.151989 207 183 173
1.689165 -1.583217 3.092221 227 214 203
-8.526908 8.777964 3.284867 209 193 168
0.410997 2.856710 -0.397583 95 104 70
4.360298 2.679371 3.072136 137 130 111
25.323210 -6.580669 -40.048565 167 150 132
-3.401251 7.471924 -0.550029 105 87 80
-4.110904 2.613313 1.308358 194 191 178
-3.415354 1.772617 2.917389 215 197 177
14.581044 0.401986 -20.491917 0 0 0
-3.090126 3.643623 0.478729 83 78 110
-2.015304 2.439324 2.533998 83 69 60
-4.507395 -2.627302 2.948786 252 245 235
1.784565 -2.996994 0.146838 48 126 183
0.577604 1.918849 0.149152 192 142 93
1.424989 -3.436017 0.358429 246 226 183
-8.749250 8.294581 3.032680 193 171 157
1.392378 -6.377289 2.871266 215 197 185
-2.501164 1.900938 -0.161640 235 214 197
0.917921 -5.137584 -0.161968 116 106 98
1.400288 -3.290132 0.018275 195 202 194
1.834369 -2.824930 -0.983695 115 110 106
-0.696887 0.755849 1.595733 159 137 122
-2.409660 7.085758 0.651864 0 0 0
-5.540066 6.217609 -0.499360 116 105 103
-5.483746 5.036416 0.513387 44 52 73
-2.945234 -0.473336 3.217123 163 147 134
-3.097875 3.273260 -0.123522 22 43 73
0.458361 2.862005 -0.444724 130 124 86
-5.088760 8.059288 3.706801 196 181 166
2.064825 -7.518284 1.776982 124 117 111
-5.919296 11.512091 1.226852 132 104 90
-0.677372 2.798962 3.112965 186 168 156
-2.713121 6.426334 3.181885 252 247 241
-1.874868 -5.849661 2.556026 229 211 197
-3.346286 -4.595280 -5.641295 95 92 85
1.039019 2.270875 0.344195 213 182 153
1.418320 -3.437315 0.260439 154 151 162
-6.885752 -5.591358 2.774997 249 243 231
-7.964609 -1.865178 0.011378 123 128 143
-8.537110 6.187917 0.763303 194 171 150
2.098861 -2.285936 2.748050 182 159 133
-3.743149 -3.418900 2.595919 123 119 112
-7.345660 8.981953 3.238318 213 197 188
-5.019661 -2.281745 2.582354 177 164 155
-1.175036 -3.816749 -0.673971 137 88 74
-2.682257 1.647823 2.505508 206 189 173
4.792388 0.084401 2.667343 197 188 173
1.755734 -6.081777 2.537422 254 243 233
1.314852 4.261538 3.101843 186 163 132
1.559262 -3.194725 -0.880134 0 0 0
-5.282973 3.571445 0.848470 218 213 200
-0.340682 6.962871 3.425781 0 0 0
-4.115707 -1.959689 -0.228628 87 50 32
-3.646673 7.442853 1.445371 209 190 175
-0.605956 -2.780593 2.819916 65 61 53
0.572229 2.064691 -0.320881 56 38 13
-4.441551 -0.603793 2.797733 255 247 244
6.479152 -4.384698 2.089654 168 113 106
-3.717806 7.145693 2.918555 237 221 208
-3.300039 0.431001 -0.295930 197 187 177
-2.543532 6.231554 3.607944 195 172 156
-1.996972 -3.435998 2.474119 102 91 83
1.168823 -6.817830 1.806740 100 93 82
-1.559212 1.411411 2.337978 121 99 85
1.960658 -3.607402 -0.016799 71 109 147
-2.305671 7.198359 0.501362 204 194 167
-1.272907 7.415356 1.098704 241 215 194
-3.832197 -3.974893 0.296089 105 100 108
-1.186953 7.854331 3.149745 245 233 220
-0.311629 -2.723154 2.749614 88 78 69
1.536990 -3.754920 0.217951 148 150 154
-3.425598 3.866075 0.627533 102 99 96
-2.443201 -4.376937 3.089252 168 150 138
-22.197260 -18.980556 -46.984081 167 153 140
-3.617646 -2.048676 0.609669 227 252 252
-6.516101 0.912752 1.071674 0 0 0
-3.483502 -4.650784 2.865585 196 182 172
-2.235041 -5.474751 0.147339 141 125 108
-2.891203 0.512005 -0.314834 77 65 53
-2.423551 -5.359864 0.179233 193 180 164
-8.010997 -4.348329 2.583995 179 173 161
-1.045856 -6.833581 1.296040 135 123 114
-1.982956 -5.665741 -0.281757 215 192 178
-18.597082 -0.928451 5.116365 205 197 194
-1.494892 -6.589609 0.768060 233 229 215
0.548964 -6.810720 1.863424 216 198 182
-3.800434 -0.104974 0.668841 180 180 192
-1.145925 -6.080291 1.485910 188 171 152
-2.817163 0.596980 -0.584797 115 97 83
-1.145263 -6.230110 -0.727630 52 53 47
-2.858529 6.529444 0.202219 230 199 179
0.079988 4.927195 -0.274592 162 156 123
4.723271 0.123465 2.697201 83 74 65
-1.098406 -6.279501 -0.656520 114 112 107
-4.261019 -1.458983 4.380933 173 147 132
-3.892274 -4.671591 0.649623 214 201 193
-3.989582 -4.390066 0.518170 85 82 96
-0.281987 -3.078420 2.961582 137 124 116
-0.501141 -11.680666 2.567651 124 124 116
-1.601846 -6.393827 0.515103 204 198 184
-1.795216 -6.243184 0.598912 228 215 199
-3.279725 3.616666 -0.162109 4 22 31
-5.398798 6.053022 3.241281 177 156 137
-0.808029 -1.646820 2.954561 127 109 97
-1.543134 -5.856428 1.000434 226 209 187
-3.048123 2.801667 2.846635 193 177 162
-1.491364 -8.153369 2.140142 95 91 79
1.630123 1.394085 -0.525678 94 71 53
-2.376611 -7.779562 3.180186 0 0 0
0.698725 9.474832 4.190553 180 162 141
1.218665 3.710487 2.861414 184 164 139
-3.152695 7.012141 0.768133 190 171 150
-3.238686 -8.807189 1.205101 129 123 110
18.469566 15.291966 -19.932533 76 73 66
-30.443085 -56.971375 -84.780144 141 131 119
-0.948062 -6.226512 -0.564856 228 219 213
-34.530930 7.422738 17.577744 252 251 249
1.374488 -6.054463 0.496635 106 99 93
-4.511444 -1.839788 0.606039 226 230 216
0.853715 2.397483 0.487256 239 226 214
0.793217 7.850793 3.374628 242 222 195
-23.897362 22.521034 30.200241 0 0 0
-4.093813 -7.853135 0.813482 164 166 163
-0.847668 5.003778 3.731900 126 110 97
-3.276833 -6.175292 0.151003 206 236 238
-3.976528 -2.112488 0.562811 107 101 86
12.402890 9.520180 -5.567284 0 0 0
-3.567852 -6.281367 0.317291 155 185 187
1.363200 -7.770222 0.068290 87 91 94
-7.582996 -2.188373 -0.077087 84 73 81
-3.633426 0.155455 0.224932 90 94 110
1.305288 -2.555955 2.802200 111 98 89
0.831030 3.351359 1.149089 207 195 181
-4.076528 -7.963676 1.383222 124 129 123
-3.438944 -6.631588 2.467319 224 211 197
-2.939616 3.200283 0.439321 151 151 159
-2.518045 2.744846 2.972481 110 95 81
-1.386640 -3.075544 3.036387 47 39 35
-2.388932 -0.412830 3.634258 167 149 139
-4.324533 9.399122 2.628481 0 0 0
2.950967 -7.036661 0.723750 224 219 201
1.544796 -4.005209 -0.488711 43 29 41
-0.475117 7.584923 1.672160 180 162 140
0.462038 -2.980725 2.640952 85 72 64
-1.893345 -5.514809 2.235485 171 155 139
-5.160600 -7.778921 0.864531 220 218 206
-3.462459 -4.030754 -0.279100 221 203 193
-2.439684 7.174400 1.198223 126 58 56
3.407335 0.684757 3.113499 190 179 177
-3.941316 -5.675548 0.270537 120 102 90
1.331518 -3.385596 -0.150756 114 158 174
-5.810677 -3.253668 0.582857 126 121 128
-0.780627 -3.479666 3.003335 157 135 121
0.854125 3.503893 0.682500 190 177 162
-4.316614 -3.665222 2.626097 0 0 0
1.398047 -3.386322 -0.238591 130 138 124
0.143349 4.467995 3.340135 238 220 199
-0.683118 -5.267040 2.946204 150 131 114
1.337357 -3.590226 0.266416 127 144 167
1.017885 3.218427 -0.399043 49 44 38
-1.124676 -3.935948 -0.683278 156 92 44
-2.871243 7.151150 1.029732 185 149 135
-1.738346 -4.034522 -0.737057 33 13 23
-8.390976 -4.011666 2.574513 0 0 0
1.286696 -3.187043 0.285295 204 203 207
0.239730 5.391758 -0.600868 34 34 22
1.168273 -6.806279 0.508289 109 104 98
-6.203695 11.188600 0.371808 127 95 66
-0.699182 -5.394755 2.971343 140 121 104
6.143728 -3.619070 2.831947 122 113 98
-0.894940 7.020106 1.144406 214 133 131
-4.052511 1.689944 2.881160 172 153 138
-7.078925 5.667642 3.117862 206 191 184
25.687574 -9.454459 -33.698318 135 119 111
-8.021875 -5.912821 2.031223 212 195 177
5.776046 -8.790898 2.792722 253 253 251
-3.904253 -4.499351 -0.158259 157 121 112
0.431903 2.926449 -0.395148 48 39 36
-0.490404 -11.168968 2.188210 90 87 78
5.211828 -2.855915 1.942595 214 203 183
-9.161194 -2.657235 2.816436 192 185 175
-8.999990 -4.035154 2.364777 193 183 171
-48.969349 -33.838791 -82.683937 79 69 60
-5.732601 -3.905784 2.549201 116 105 87
-2.943172 -2.648569 0.003830 132 112 105
-1.961593 -6.268534 2.465292 174 158 143
0.311137 3.522387 2.844785 213 191 177
0.517990 2.854141 -0.367581 113 106 87
1.097302 -4.496859 3.191240 254 237 230
-2.237200 -1.002365 3.127972 133 116 108
0.898875 5.270596 1.670581 236 217 189
0.287960 3.488389 2.881545 169 150 143
1.081079 -9.140511 1.843153 95 95 85
-1.169274 5.593975 4.134640 165 144 123
-0.999296 -1.864267 3.014861 168 151 141
-3.688385 -7.453187 1.461979 128 133 113
-4.069965 2.120106 3.047876 133 115 91
-8.542105 -6.646929 -22.283878 163 145 133
-2.296480 -1.022997 2.940524 141 124 115
-4.620944 -8.005181 1.471132 116 126 109
-3.440201 -2.710264 0.553153 106 110 125
-5.639044 0.045003 -0.695671 129 96 69
-2.438376 -1.004443 3.084782 173 156 146
-1.232401 4.548790 2.253024 153 126 105
-5.639044 0.045003 -0.695671 129 96 69
-8.472740 -2.983823 0.366477 57 56 64
2.386528 -2.465233 2.874754 177 157 134
1.171256 7.042970 2.841498 211 195 162
0.776585 7.779710 1.254529 226 206 181
-1.000997 -6.609244 1.514822 118 108 96
-5.353676 -1.108584 2.539508 194 178 162
2.836770 0.958452 3.180936 211 198 189
-47.332275 -50.327934 -70.906677 99 87 73
-9.209272 -1.020394 -1.225313 157 167 169
2.272987 -2.593560 2.792107 100 92 73
-0.460551 8.259903 8.829158 147 135 121
1.250382 0.573693 3.240162 253 247 233
-3.534088 -7.360847 2.659842 219 207 195
0.088026 -2.696320 2.722469 119 104 97
1.934658 1.600869 0.230359 71 50 44
-5.304164 0.677635 0.491503 174 140 139
-3.990333 6.769053 2.976479 194 176 162
0.436768 1.485195 -0.174667 44 35 32
0.147484 4.539032 -0.427153 36 23 11
-4.230164 -7.773429 0.757745 173 174 168
-1.256802 6.145158 3.206644 167 142 120
-4.138642 -7.601039 0.745083 173 174 168
-3.502030 -3.026737 2.441941 184 174 162
-0.850113 -5.143753 3.016365 158 139 124
-4.367898 -7.891210 2.175598 218 202 186
-4.716105 -7.951452 1.150968 219 214 208
4.521688 1.867613 3.567112 207 196 178
0.171690 4.634748 -0.330871 61 61 27
1.549317 -6.474506 -0.911010 21 21 18
-3.917473 -3.957338 0.419380 114 113 124
-1.170726 1.938097 2.970764 161 142 127
-9.722590 -1.100625 0.324219 237 250 252
0.226043 1.908450 -0.170333 77 50 37
-7.471611 -5.922589 2.478440 208 195 183
-6.093872 -4.369073 2.582782 169 157 141
-2.024617 -0.946274 2.890149 224 207 191
0.647540 4.697615 0.643407 214 211 218
0.659792 3.256758 -0.244117 55 14 1
-5.234851 7.924637 -0.766586 139 126 117
5.050849 -2.275568 2.876564 163 156 140
-1.973066 2.500820 -0.644408 97 93 84
-5.331477 -9.160095 0.283857 226 192 182
1.443943 0.198018 -0.481686 135 125 124
-4.782269 -0.396513 2.951173 252 245 242
-5.191206 -0.463528 0.852314 207 208 200
2.192809 -2.705100 2.879993 116 103 87
-3.788662 -2.820296 0.723250 96 95 92
2.192809 -2.705100 2.879993 116 103 87
-2.852726 0.978738 -0.395889 179 167 152
2.770437 0.358748 0.153448 41 23 12
-2.915698 3.286866 4.159206 0 0 0
1.390020 -3.149493 3.141362 195 177 162
-2.365819 -1.011706 2.949570 221 203 191
-1.527137 -5.732390 -7.704237 248 221 200
-3.057082 4.263223 -0.066119 61 60 68
3.123364 -3.549183 -0.480419 82 67 44
2.791314 7.742394 2.869916 167 153 135
1.633296 1.654280 0.346695 79 66 73
-1.219211 -1.968477 2.986576 254 251 242
-3.544806 0.115179 -0.124152 133 125 122
6.373751 -0.878690 1.524011 235 223 201
-0.686889 -1.466859 2.636482 121 104 95
-1.342800 6.372165 3.196742 0 0 0
-9.232225 2.149842 2.889829 188 181 173
3.438646 -3.586098 -0.901495 62 51 49
-3.941623 -7.891124 0.226635 102 102 95
-0.724343 -7.706509 1.458814 118 112 100
-2.093714 -2.245684 3.029703 250 249 252
-7.366194 -4.918818 2.671258 219 209 199
-2.707052 -2.347742 3.098359 176 154 141
-4.775229 -3.989835 2.452736 203 187 172
-1.309323 -3.135548 2.972278 168 159 154
-3.822197 -2.411774 0.158278 232 214 191
1.724280 0.179086 0.847199 98 79 65
2.234365 -3.010567 3.022503 220 201 184
-2.846626 0.029315 3.013383 176 160 147
-0.490277 3.762933 2.931182 212 193 170
1.441413 -3.598478 -0.733543 27 43 52
-0.285758 -1.238866 2.841185 112 83 77
-4.517847 -3.362360 2.793629 226 209 191
-0.191004 5.126400 -0.452241 98 53 44
-2.092113 3.212699 3.370249 147 128 113
3.677528 8.234435 3.926212 210 194 165
1.806958 -1.670011 2.985570 194 180 171
-1.959646 -6.083260 1.320103 125 130 123
0.534370 -2.622554 2.664302 175 165 155
5.345377 -0.056542 1.138045 57 49 40
-5.035851 -0.340164 -0.365444 218 207 203
1.071639 -1.907513 2.944998 252 241 231
-3.886562 6.132430 3.165698 200 182 168
-2.425752 -0.045346 3.147362 229 216 208
-5.405987 8.590481 -0.404171 191 139 95
-4.330328 -5.574687 2.390899 204 187 171
-0.388741 -2.732006 2.672898 107 85 71
-3.985938 6.303264 3.260954 200 182 168
0.028827 2.545480 3.285245 255 253 240
2.067367 7.449933 3.509060 171 148 114
0.689294 -6.131692 1.593455 114 105 98
-0.388741 -2.732006 2.672898 107 85 71
-2.899144 2.780402 2.474922 196 173 157
-1.679760 1.070421 3.127176 153 135 121
-6.016365 8.845807 0.496320 117 95 117
0.452493 -1.769066 3.151776 186 169 159
-0.490095 -2.663229 2.798989 170 152 130
1.767339 0.201760 0.853242 80 61 46
-2.140763 1.306186 3.034585 151 132 117
-3.160893 0.209507 -0.678436 72 72 66
1.380175 0.187994 0.941803 238 219 187
-5.375926 -1.602615 2.774538 171 158 141
-1.363120 -1.603759 -0.764642 23 15 10
-3.767648 -1.971172 -0.809093 158 146 117
3.015115 0.813163 3.550811 169 151 129
-4.934614 -6.211471 2.653853 187 171 155
-9.943332 -0.623898 -1.043747 93 87 90
0.540421 4.118314 0.444605 207 141 120
0.206756 4.615330 -0.350629 40 29 42
-3.153231 2.630177 0.152898 32 53 74
-0.500777 -2.782662 2.702211 123 107 98
-3.586888 -12.718627 1.212995 141 152 146
-4.993181 -2.650231 2.744384 254 255 247
0.477416 -2.561806 2.777433 84 77 69
-4.666731 2.242433 2.572618 254 245 228
-1.711395 2.866520 3.292269 188 165 147
3.387803 0.559572 3.003303 253 248 242
3.346239 7.687829 2.852134 143 127 99
-0.749495 -5.042072 -0.254043 90 36 34
0.596239 -2.630298 2.698456 114 103 99
-6.181617 -3.118599 1.732788 254 247 231
-9.225392 -1.581309 -0.953710 38 40 31
1.267394 -2.389746 2.815325 199 181 165
1.948067 6.489275 2.648807 156 133 102
-0.527292 7.816449 0.199807 212 191 172
-3.424954 0.245752 -0.253364 118 106 93
2.219057 -3.711217 -0.147743 94 78 85
-1.209682 10.052745 3.457464 222 201 182
2.076980 -7.059971 1.790595 234 227 219
-3.235734 0.123589 -0.194842 123 113 107
1.780396 -3.628773 -0.138375 41 75 102
3.053773 4.174988 3.390791 170 154 139
0.656152 3.746733 1.223034 232 223 187
-2.852602 -3.305256 3.073757 169 154 141
-3.775061 -2.313879 0.215839 167 148 131
5.423778 -2.511036 0.120452 62 51 29
2.260106 6.822123 3.218007 164 141 109
-0.888666 7.742086 3.273642 151 138 122
-1.191525 -3.115430 2.644907 123 114 109
-3.759344 -2.299238 0.205783 167 148 131
1.391019 -3.578695 0.193145 73 89 114
0.384050 4.715090 -0.194081 35 26 20
-0.992194 7.646329 3.229193 137 124 108
1.552993 -6.760728 2.976094 228 208 197
-1.419717 0.177799 3.138953 250 251 245
-0.638830 -2.585508 2.841937 166 144 130
1.350580 1.603643 0.246608 199 175 144
-2.179733 1.467424 3.092356 194 175 160
-2.645397 3.443999 2.786984 193 176 164
0.351035 6.446700 3.224302 218 198 171
3.666164 7.545799 1.135382 115 80 87
-1.673240 10.432300 3.298433 225 205 181
1.371894 -3.625454 0.234834 143 144 149
2.372113 6.803302 3.130769 149 126 94
0.401317 3.463547 2.964186 221 209 195
-4.226172 -0.288697 2.972855 210 200 192
-3.126626 0.356762 -0.389689 81 75 61
-2.886920 5.058304 3.680267 200 182 168
-0.282048 5.658605 0.985041 228 208 183
-1.269491 3.126070 2.864846 146 132 121
-3.330259 0.707510 3.562736 205 188 170
-1.192567 -1.462407 -0.705159 109 76 71
-3.469409 0.184285 -0.148304 129 120 113
2.989910 0.810543 3.191345 171 158 137
-2.189361 2.917509 3.317889 76 65 57
-3.112084 5.423915 4.456730 173 152 135
0.635181 4.792458 1.108798 89 84 89
-2.867083 1.139147 -0.280403 222 202 178
-6.399443 -3.268809 0.398681 129 127 137
-2.613506 -1.170444 2.817386 137 119 105
-4.600907 5.813402 0.295188 55 63 82
0.679786 4.593163 -0.670464 208 192 177
-2.168997 -3.026118 2.595792 205 196 189
-2.965100 0.275857 -0.606992 49 45 34
12.672636 27.036825 -44.169830 0 0 0
-0.196697 5.301088 0.267188 95 56 24
-2.257002 -3.144903 2.766895 90 81 74
-2.465631 3.405219 3.231781 152 139 131
-2.915849 0.912777 -0.480188 130 117 98
-2.991302 0.846307 -0.145408 92 77 58
-3.134391 0.649965 -0.152668 149 135 125
-2.720810 1.648332 -0.133609 99 82 75
4.023535 -5.408338 3.090786 183 168 157
7.015193 -1.899625 -8.917951 0 0 0
-2.859038 2.615044 2.930156 183 167 152
0.888159 -4.147123 -0.075742 0 0 0
0.096124 4.256651 -0.379783 42 34 32
-0.603224 3.669420 2.884331 126 108 94
-4.768659 -8.041981 1.151231 217 217 212
-4.325485 -4.453358 1.009839 140 130 127
1.225099 4.780129 3.144722 0 0 0
-3.058625 0.979277 0.442059 109 107 109
-3.836783 -7.844117 1.569858 243 238 235
0.500129 -2.666755 2.698388 103 92 88
1.405054 -6.322223 0.118081 57 52 48
-6.722784 1.361449 2.086732 160 153 135
-6.178713 -3.920154 2.416933 218 214 203
-6.728242 -2.769463 2.756571 253 245 233
-4.240836 -1.681952 -0.856223 124 103 72
-5.831021 8.057881 1.342359 217 197 176
-1.118125 0.064820 3.005525 159 145 141
0.812402 7.459136 2.809313 253 237 211
0.715656 7.149919 2.871391 219 200 170
-3.387764 1.267267 2.993538 221 203 183
-7.099967 -3.600415 3.048073 194 184 175
-4.045820 -1.909514 -0.635468 36 21 1
-3.709290 -3.881118 0.154033 99 92 106
-2.124287 2.531799 2.810676 193 171 150
-2.243099 4.286008 2.818178 198 176 162
0.121875 0.468061 3.124323 254 249 253
-3.067671 4.249532 -0.639868 98 95 87
-3.047919 0.969266 0.383061 101 88 83
-3.806061 -7.804541 1.126645 138 145 142
-3.382827 -4.779130 1.578393 240 224 208
-2.256507 -5.208607 2.579804 177 159 145
-3.375016 -4.734388 2.742571 241 223 211
11.641986 17.048372 8.983304 141 149 162
0.795527 4.017369 -0.457110 27 20 12
0.302756 1.481730 -0.313182 38 35 28
2.250892 -3.037867 -0.619044 103 95 93
-7.469685 -8.698802 2.427248 253 252 233
-0.721597 -3.897640 2.814255 249 238 228
-2.600658 1.842990 -0.289690 207 191 157
-0.693343 4.387906 3.268348 200 179 158
-4.479943 -5.827546 0.532532 200 192 181
1.360553 -3.652669 0.033437 198 189 174
0.460290 1.528359 -0.289244 21 22 10
-0.347528 -2.619716 2.912166 140 121 107
-2.773445 -1.598183 -0.099236 126 74 79
1.790949 6.358054 3.421544 184 167 139
0.616032 4.879302 0.857601 248 232 195
0.046222 2.474810 -0.503866 116 106 96
0.043972 -2.525786 2.981472 184 166 146
-5.889458 -2.502501 -0.669944 32 28 21
-0.931168 -5.023653 2.764639 248 229 215
-2.281490 -3.118315 2.748311 82 73 64
1.801064 -3.153524 -0.489300 35 107 178
-1.778512 -5.744769 1.914214 224 207 191
-0.880797 -5.743667 2.423698 198 182 167
-7.577581 -1.954653 0.003765 91 88 98
-1.126417 -6.168186 1.327122 162 157 145
-1.781148 -1.754360 2.811422 255 250 238
0.931100 1.530191 -0.515560 198 144 98
-6.335109 -5.448967 2.666843 244 226 212
2.831154 -4.665205 3.058026 185 171 157
-17.299240 11.226609 8.662860 254 242 234
-4.428823 -7.891846 1.358179 125 132 123
-5.892060 -2.817566 3.029874 194 182 168
1.697989 -0.718222 -0.590575 151 140 137
-3.778425 -4.158511 1.035228 249 243 224
-3.501751 -3.629776 2.591008 138 134 125
-2.047279 1.410787 3.027926 237 218 203
-0.399843 4.391730 3.030995 251 247 235
0.797855 2.754240 -0.471797 138 140 102
-3.329279 0.302466 -0.064903 169 141 152
-9.977002 -3.834905 1.483118 231 243 243
-1.589182 -5.540746 2.164883 241 223 209
-5.431147 8.615468 0.527884 116 105 113
-2.105869 -4.490132 2.775165 206 188 174
-2.934050 0.518587 -0.266785 71 62 51
0.340305 4.472036 0.383608 117 165 84
-0.644962 13.245365 3.487703 108 119 101
3.201837 -1.127270 3.188454 200 180 167
-2.841639 1.064985 0.331813 84 76 64
-3.987227 -4.133890 2.526675 194 185 178
4.926643 -4.597021 2.956779 193 179 162
1.247050 3.550467 2.923851 182 167 148
-8.924721 -1.086428 0.004132 174 167 181
-3.096745 -2.829880 0.599832 116 109 117
-3.795914 -7.789297 1.448639 203 218 199
-3.927979 -4.090210 1.612873 210 198 186
-7.218075 -2.943001 2.205199 218 215 210
1.436718 -6.238950 0.139135 0 0 0
0.640085 2.791110 -0.399124 48 40 24
-3.722030 -1.940121 -0.810152 167 145 121
-3.325925 0.401576 -0.064308 175 136 141
-3.756505 -2.651553 0.053995 223 206 190
-3.169328 -3.586632 0.287029 104 90 100
-2.808883 1.288510 3.268245 136 117 100
1.285739 -7.003656 1.796593 0 0 0
-3.198265 -2.086472 3.291080 220 198 185
-3.410481 0.158090 -0.245510 134 126 120
-3.307807 0.292775 -0.727678 181 174 163
-3.931725 -4.107430 0.550496 145 142 153
-3.931725 -4.107430 0.550496 145 142 153
-5.594015 -8.575080 1.646407 157 156 143
-5.566343 -3.766684 2.552142 196 190 176
-4.213520 -8.205939 0.934426 140 141 136
-4.624593 -7.393338 1.636335 249 241 222
-7.002414 -5.789109 2.626891 209 196 180
-3.955212 -3.864990 2.525719 233 226 216
-4.320759 -0.459791 1.195291 151 143 132
-4.457572 -0.794926 7.532140 200 183 167
1.073053 -9.785399 1.969239 107 104 97
-0.926176 -6.505841 2.496685 171 158 142
2.546906 -5.353814 2.954531 226 208 194
-2.585853 2.355653 2.151632 155 138 121
-0.481372 1.304216 0.176129 152 135 127
-3.608887 -7.766288 1.644238 144 137 119
-2.863799 0.803729 -0.483071 179 170 152
-3.727919 -2.095317 0.115051 231 209 196
-4.661033 -8.072018 0.297607 98 91 80
-4.336776 -7.856771 1.385201 112 130 121
-6.927131 -3.853397 2.643362 198 190 179
-1.770010 2.823056 3.461938 194 172 153
1.303829 -7.756759 -0.869036 0 0 0
-4.705253 -3.709595 2.626144 222 214 203
0.510139 6.739114 0.931022 152 134 124
-2.889739 1.737764 0.947010 239 220 205
2.663814 3.103783 5.212012 172 148 124
-0.473968 -5.598931 2.742446 158 140 128
-0.489022 -5.332016 2.661358 158 140 128
-4.132891 4.204728 0.660127 247 227 199
0.560561 -1.492909 3.009403 251 242 240
-6.086924 3.707850 2.569559 0 0 0
-0.635597 -2.318744 2.938221 115 101 92
3.350655 -0.020063 3.182870 165 150 127
-2.720657 1.324250 -0.710849 78 73 65
0.817505 7.383417 0.366152 244 212 174
1.472109 3.381392 2.004497 252 248 245
-0.625810 -2.400468 2.957918 115 101 92
-1.151953 -2.564040 3.240587 244 234 225
1.363435 -5.285858 3.563036 193 181 183
-2.942426 3.056041 0.283359 37 46 64
-8.751590 -3.015269 2.655759 194 188 176
-2.654786 -0.139220 -0.744721 128 131 112
-2.213976 3.151122 2.771551 72 62 50
-1.722100 -1.699553 1.766805 223 205 195
-8.360518 5.487826 2.901741 232 220 208
1.468958 -3.354535 0.135141 205 211 232
-2.418325 -2.581536 2.845699 156 139 129
0.701353 3.417554 2.021327 189 163 130
-3.011026 -1.988967 1.882127 200 185 178
-5.931576 6.843620 2.985422 138 123 104
-3.770067 -5.510141 0.559500 143 148 144
-4.130641 -12.857826 1.365192 238 252 252
-3.558687 2.287345 2.920860 196 178 156
-3.580228 -5.429491 0.442932 169 174 177
-2.982013 2.997989 0.441597 242 237 244
-4.255454 2.357520 1.317758 212 209 191
1.891553 -14.253415 1.583041 108 98 93
-4.288398 1.851786 3.184717 190 173 155
-2.848361 0.822899 -0.573209 46 40 26
2.010041 -21.292404 2.476877 175 172 165
-6.847157 3.963718 -0.609281 187 135 86
1.557868 -7.826442 0.145945 0 0 0
-1.678167 7.018250 0.378792 0 0 0
1.158116 -5.902009 2.944942 183 165 151
-1.694722 7.328821 1.141864 254 219 211
0.862173 7.812903 -0.368288 101 97 86
1.598911 -1.855409 -0.503901 131 117 117
4.841591 7.033533 1.550840 94 71 80
-1.386997 7.356977 1.090383 251 225 208
5.516022 -1.673497 3.208571 162 155 139
-5.808460 10.838357 0.249005 236 196 159
10.321432 -9.176929 -18.586151 198 172 159
5.257447 6.124533 0.489569 146 115 87
-0.152805 8.038996 3.060895 193 185 164
3.330510 7.763720 2.977148 129 113 90
16.458366 -5.099896 -25.918169 156 140 123
-5.617191 -3.942620 2.371403 172 177 162
0.727594 9.358928 3.292370 237 219 196
2.438020 -2.347416 2.979740 138 127 109
-2.932238 1.835508 -0.051069 214 196 184
-5.655853 9.565964 0.291700 161 118 94
-11.781639 -8.326723 -21.084969 0 0 0
3.377810 -1.952795 3.359253 145 128 110
-3.795678 -2.672312 0.724511 223 207 194
-2.552521 -2.445123 -0.308389 115 47 52
2.177393 -2.507543 2.683303 88 71 53
-10.319385 -2.824256 2.498262 182 174 161
1.685917 6.947020 3.416307 203 179 145
-4.372722 -3.006582 -0.124189 181 97 100
-8.515317 -6.707101 2.364052 217 199 177
-2.951052 0.398646 -0.555258 65 59 46
1.076770 2.834516 3.329673 179 158 137
-1.298505 -1.783594 -0.451888 93 21 33
-0.594461 -2.785020 2.603009 187 170 162
-3.992403 0.178338 -0.299490 118 106 93
1.383346 -2.863451 2.873408 0 0 0
-2.062940 -2.159789 3.157482 225 215 206
-6.088453 -6.268625 3.085334 192 174 154
-2.844263 1.147710 -0.272580 205 187 165
1.270368 0.991650 0.437880 0 0 0
-1.259505 6.042354 2.383684 207 191 178
0.598917 4.792530 0.709168 127 122 119
0.793875 3.555398 -0.274612 63 0 0
1.624395 -3.644838 -0.225273 22 86 148
-3.461243 6.683087 3.440687 234 224 214
-1.755273 11.128760 3.457812 253 246 232
-1.787856 -5.243252 2.494927 223 204 187
1.337891 -3.642106 0.214976 168 164 165
-4.379439 6.741782 2.809396 211 193 179
0.645398 4.639930 0.711054 100 159 107
-1.950462 1.571909 2.811589 189 168 151
-4.238103 -1.702252 2.760319 198 180 168
0.485339 2.273921 -2.647614 0 0 0
-2.865400 0.877990 -0.674763 168 161 150
-2.636479 7.813637 1.530914 247 227 209
-1.687187 -4.258188 -0.997602 58 51 44
-2.825779 0.839546 -0.519705 212 200 181
0.271623 6.408618 3.378344 186 165 139
-1.008815 -6.255707 -0.647055 218 202 186
-2.460312 -3.104409 1.081008 235 219 203
-1.750407 -4.012789 -0.554942 215 150 107
-2.977815 -3.493172 4.394400 251 249 243
0.416608 3.518884 -0.508878 137 93 51
-3.487778 -4.107909 0.036399 44 32 33
2.005749 5.176571 11.835355 254 252 246
-3.360251 4.757417 2.417844 186 163 149
0.220782 4.509535 -0.407728 173 151 120
-18.672543 -7.930486 13.691978 189 171 159
-3.237049 1.315518 1.663215 251 237 226
-6.414428 9.983751 3.183509 254 244 233
0.590215 4.911392 0.862036 214 210 187
-0.885583 -5.790061 -0.848821 42 35 27
-3.815057 -3.998207 2.483083 181 164 148
-3.604739 1.745054 0.776321 169 152 160
-4.599931 8.464244 -0.586602 157 137 120
0.716902 4.906408 3.308835 178 155 130
-2.480330 1.944968 0.489324 207 188 173
1.703916 0.211514 1.394441 225 212 204
-3.788890 -4.556400 -0.048914 85 78 84
-4.368739 -4.155653 3.366712 216 198 178
-2.301886 -3.862280 2.822653 204 178 163
-5.202567 -3.621448 2.724254 153 145 132
1.326934 2.678445 1.718274 241 225 199
-0.877626 -1.492210 -0.394632 55 22 17
0.123050 0.477112 3.156818 253 243 234
-3.484339 2.991178 5.610837 112 89 72
-2.555712 8.472575 1.979553 248 226 211
-2.855136 -4.155293 -0.255833 132 119 101
-1.585518 9.177157 6.651473 228 215 202
-3.934067 -3.975887 0.312484 108 100 116
0.827860 2.686294 0.452867 241 216 187
-3.891289 -5.437553 0.375690 211 195 182
3.084430 -6.507680 0.662724 242 219 211
-2.456889 1.655655 2.381888 219 200 185
0.529166 1.487940 -0.606128 99 75 51
-3.383066 -3.429014 -0.337309 156 73 73
1.809335 -1.683300 -0.256239 187 178 164
-2.420824 -0.935266 3.010509 169 150 136
3.295570 2.328764 -0.451892 95 91 82
-0.670313 -5.604590 -0.829181 115 89 85
-3.732788 -2.364048 0.132147 232 211 187
0.554607 4.851292 3.634350 219 197 169
3.837635 2.605619 0.522242 40 36 34
-3.911719 -2.434524 0.254036 215 193 182
-3.873029 -4.029163 0.715047 208 193 200
5.748337 -5.785644 3.191069 246 230 214
-3.097140 -3.301369 2.520585 135 127 116
-3.878333 -2.430258 0.106324 240 217 200
-4.936326 7.967654 3.242723 169 151 131
4.309382 2.579916 2.840515 159 152 134
-2.978679 -5.052554 -5.559951 0 0 0
-1.567376 0.961184 2.980246 198 180 165
-2.749678 2.473699 2.483118 103 88 69
-3.784444 -2.795300 0.232733 92 86 99
-3.729509 -2.078405 0.213635 128 117 104
16.368320 -15.182128 -26.526466 0 0 0
-4.752721 -3.651576 2.589303 232 224 211
-2.193967 -3.279944 2.660290 110 95 88
-4.816136 -3.722448 2.629395 232 224 211
1.297552 1.794428 0.202121 229 155 88
-2.332214 -5.171161 2.754274 176 157 140
-3.827093 1.695948 -0.592840 188 166 143
-3.054477 1.385265 0.383105 126 123 127
0.875675 3.583466 -0.507761 23 14 17
-1.288827 -3.645066 -0.791562 17 13 11
1.578515 -0.667698 -0.546764 138 128 126
-1.669838 -3.320219 -0.536108 199 143 95
-3.694057 -3.339108 2.359485 157 149 136
0.004694 2.100946 1.932735 195 182 173
-0.542407 -1.339650 3.229951 146 128 116
-0.906915 -2.133524 -0.150565 37 14 16
-4.132874 1.661666 3.036028 197 175 151
0.741688 6.237477 3.068806 186 161 130
0.144322 3.282676 -0.145891 60 22 0
-6.575579 -7.936324 2.182737 255 249 235
-46.359314 -29.347225 -76.578751 0 0 0
-2.593176 1.808180 -0.592054 88 77 66
0.047148 10.978609 1.538556 221 204 180
-3.635537 -6.737159 2.709461 251 247 236
-1.804590 -5.533690 2.171642 185 168 152
-8.574272 -5.465611 2.415565 251 245 235
-2.180321 -5.427969 2.835013 222 203 188
-9.113564 -8.273821 1.924482 245 228 208
-2.838507 1.068325 -0.438323 151 139 123
-3.828513 -0.061596 0.220034 236 247 249
0.291441 7.031390 3.365572 196 176 149
-7.848927 -0.968913 2.837260 253 245 242
-2.870148 1.094158 -0.552249 179 163 140
-1.358502 2.946305 3.010685 147 126 109
-3.550630 -6.975940 0.119762 190 179 183
-6.371050 -0.769253 2.929752 186 174 165
-3.764043 0.436121 0.552877 87 84 103
-1.943593 4.588068 3.307724 166 147 129
-4.644903 -3.708152 2.491770 117 104 87
5.525877 6.596053 10.398195 0 0 0
-1.161916 -3.238527 2.630294 74 58 44
-3.067471 3.275726 -0.642019 26 25 28
6.191596 0.535333 6.715972 135 117 92
-1.819913 7.630135 0.948651 127 106 120
-3.862156 -5.769777 -0.095195 194 189 176
-3.812375 -2.017988 0.172493 185 179 167
-2.489902 2.580776 0.212919 106 100 104
-8.090664 2.113333 2.516686 156 146 134
-0.553252 9.019751 2.841631 253 241 224
3.202924 -3.836955 3.520821 135 121 116
0.899434 3.063168 0.370062 0 0 0
-5.539148 -8.185729 1.299221 215 215 205
0.644083 4.251010 0.518678 97 135 91
4.292038 2.761470 2.862354 186 179 161
-5.164298 -8.103929 1.573954 166 155 138
-3.727995 -2.145443 0.224122 141 122 105
-3.127219 0.880549 -0.349713 161 148 129
1.787203 -1.787107 1.083472 197 179 167
1.274292 1.814312 -0.205637 217 159 110
-8.190176 -3.587280 2.239349 150 142 131
-3.137043 2.611757 0.483481 206 201 207
0.245227 0.423644 3.131245 137 130 126
-3.525523 7.321288 3.112463 197 180 166
-34.774494 -22.025845 -66.895958 225 209 196
-1.106381 -2.275762 -0.465951 83 0 12
-2.905129 -3.641253 -0.465853 171 97 96
-3.858472 -4.578680 0.123840 91 80 88
-7.391755 -0.032788 0.664476 127 111 112
-8.515720 0.517447 0.972269 237 229 210
-3.432340 -4.669961 0.589156 184 176 158
-3.880659 -2.763174 0.797576 109 94 103
-2.404096 -0.003194 3.187870 254 253 248
0.828359 5.723157 1.754056 229 223 189
-1.852270 -6.033732 1.412198 116 117 109
-5.404097 -8.024712 1.172849 241 237 225
4.456304 2.789232 3.029880 204 197 178
-2.476215 -2.418327 -0.854648 88 79 72
-1.394471 -4.612912 -0.460487 159 79 78
-3.876733 -4.012368 0.012560 194 185 186
-3.944277 -5.120272 0.078906 196 182 171
-2.025472 -3.215225 -0.479543 223 161 118
-3.385293 4.837413 2.435521 180 158 144
3.321145 4.403558 3.210414 123 105 84
-2.774616 1.807528 0.472527 235 217 203
-3.905938 -5.445247 0.215910 134 120 109
-4.164318 3.148388 2.215093 248 240 237
2.728036 3.884021 2.528297 209 206 216
-7.904778 1.148174 2.187205 171 166 146
-3.203764 -3.862400 -0.452525 72 43 27
-3.802481 -2.418822 0.034497 107 86 95
-5.883015 11.394480 0.521345 209 178 124
-2.469481 8.039411 3.040494 229 207 183
-3.441111 -3.149947 -0.443121 135 50 53
-3.719601 4.660829 -0.929742 0 0 0
-2.436686 6.871847 2.944655 176 160 145
-7.651390 -3.065343 2.080950 140 132 121
-2.864159 1.286861 -0.307748 200 182 160
-2.931630 6.456541 3.378181 249 237 228
-8.609495 5.339807 2.882822 169 147 131
-2.894185 4.275545 -0.460095 155 141 131
-0.902652 -4.274637 -0.897488 84 77 72
-0.042595 3.167930 -0.549279 118 110 99
-6.493302 -4.204216 0.884790 219 236 221
5.524814 -3.096966 0.187389 173 154 139
-3.575178 3.879847 0.708187 244 233 231
0.458354 5.051217 3.333691 235 226 213
-8.141892 2.429462 7.842850 0 0 0
-2.315752 3.964190 2.925656 230 208 185
1.368537 -3.392521 0.052277 210 200 190
1.868024 -6.474078 0.711763 121 114 108
-3.087644 1.698629 1.882673 166 148 134
-1.091137 -5.526789 2.415108 178 161 144
1.018787 3.494539 3.087313 167 149 130
0.837362 2.777613 -0.481348 0 0 0
-0.734040 -4.831401 -0.534405 95 22 29
-0.541119 -6.975834 0.391817 195 193 180
-0.061447 -1.553666 3.214228 138 116 102
-3.759047 -2.391623 0.217446 231 207 203
0.545741 -3.013342 2.774693 133 120 111
-6.466167 7.325539 3.249159 198 184 173
-1.445130 -4.866418 1.971290 176 158 138
2.902567 0.454926 0.195588 173 155 135
-5.198055 1.518137 2.327338 207 188 174
-0.637964 -5.376147 -0.250899 206 189 171
1.289817 1.637378 0.205627 225 165 115
-1.770216 -2.380427 -0.470981 88 28 36
-0.710452 -5.036099 2.641386 180 161 144
-1.246424 -0.927871 -0.369309 234 190 184
-2.424775 -2.445810 -0.495201 90 26 45
1.580679 -3.659330 -0.163465 46 97 152
-4.592721 -7.886113 1.600504 146 158 143
0.786567 5.592965 1.656051 230 221 196
-3.662223 -5.898551 0.087401 145 74 77
-3.910946 -5.797506 0.251985 184 178 162
-3.946058 5.636601 3.520913 207 186 167
1.508874 3.719475 3.064274 167 156 138
-1.977407 -3.347377 2.622292 142 128 119
-1.339770 -3.027627 -0.498392 108 30 20
-2.938141 -3.443087 -0.211378 156 75 74
-4.728874 -1.101079 1.390858 212 194 180
0.455738 -5.568547 -0.854582 190 173 157
1.423703 -3.089570 0.404829 244 236 208
-3.666761 -2.086938 -0.876651 64 50 50
0.921148 -5.153911 -0.165827 117 112 93
1.423703 -3.089570 0.404829 244 236 208
-3.298926 -1.450365 -0.754974 64 50 50
-4.022543 -3.912732 2.418229 234 226 217
0.834164 3.566880 2.916268 152 135 107
5.844161 1.322938 -12.390269 61 46 39
-1.036032 -6.903127 1.574582 117 103 90
-7.456602 -0.311807 -0.222288 191 167 126
1.419635 -2.734139 2.810640 80 71 62
-2.352673 3.464365 -0.892159 86 79 71
0.921305 -5.155996 -0.162996 159 152 134
0.918772 -5.141395 -0.159539 247 243 242
-2.042138 -3.979002 2.584432 209 187 176
-5.796447 2.271108 2.878858 211 196 175
-2.889489 0.934285 -0.484710 126 110 87
-3.862417 -4.603282 0.688312 85 73 77
-0.692378 -3.166071 2.853407 115 105 95
0.980231 3.928208 -0.454182 63 53 52
-3.096805 2.375689 -0.798133 57 54 46
0.619479 4.748124 0.782349 97 101 87
0.773758 2.759489 0.371122 230 205 188
2.391264 -4.246406 2.679228 193 175 164
-2.534758 7.051629 0.248356 218 187 177
1.552526 -4.914848 3.059809 195 177 167
-2.856426 7.145342 0.903417 185 163 150
0.600751 4.579813 0.695696 171 183 161
0.414748 2.957073 -0.471458 98 110 66
0.181087 3.352000 -0.013414 163 100 50
-2.357785 2.444685 0.557070 89 93 104
-2.952263 2.927506 0.471404 89 88 89
0.374908 4.426080 0.462893 215 221 164
0.807672 -1.996059 3.307199 242 237 234
1.184879 7.579469 3.057440 201 184 156
-2.206097 1.498469 2.879094 226 207 192
-1.576546 7.583435 -0.442576 84 69 66
0.080038 4.786550 -0.186714 35 34 21
-0.475912 3.313748 2.949231 203 189 176
-4.308234 -7.791445 2.065982 233 216 200
2.156894 -1.700735 3.303986 199 172 153
-3.118735 2.013462 0.977207 210 193 177
0.748516 3.084826 0.377973 92 93 77
-1.555975 2.820798 2.953515 196 178 158
-0.794617 -2.562692 2.795836 159 150 143
-0.568370 3.412412 3.025247 83 69 56
-0.135249 -2.573810 2.670061 186 178 167
-2.169561 2.208819 0.788172 111 95 80
-3.321734 3.417973 0.823379 96 98 111
0.997526 1.687156 -0.500651 107 63 39
-2.420275 2.263098 0.958687 137 119 105
-0.142896 -0.948149 2.802382 150 130 105
3.030801 2.678285 3.370314 155 138 128
-3.728490 5.873463 3.120476 249 235 226
-0.251262 7.448065 3.680887 230 217 204
-3.252805 7.354029 0.878154 253 231 214
1.599842 -1.198017 -0.585049 77 67 65
-7.583599 8.127682 3.481432 204 193 187
-5.351111 6.767410 3.144488 168 157 145
1.234099 0.841343 3.200238 233 211 214
-4.346425 8.696344 3.273453 94 85 76
-2.293151 3.406227 2.907803 200 183 167
0.464518 4.733532 -0.308085 38 35 28
-0.871865 7.443735 1.052728 234 206 194
0.770196 2.623559 -0.431779 34 24 23
0.608766 3.065585 0.338567 254 226 209
0.135372 10.915771 3.122296 183 167 141
-4.897065 5.412606 0.571193 81 83 95
3.571830 -1.049426 3.785794 175 154 134
-6.739250 11.172985 0.757028 78 56 50
2.033596 5.194857 3.376127 210 191 176
-2.404918 3.285712 0.810642 208 193 186
0.588201 2.942331 0.360744 147 124 107
-2.469106 1.840371 -0.563328 65 50 33
0.355325 9.429992 1.084077 243 230 214
0.569556 5.056828 0.965803 119 111 109
-1.354628 3.103323 2.753982 76 65 55
0.585983 4.978422 0.895693 238 223 200
1.385883 8.296034 2.663502 223 205 185
0.528653 4.154464 0.391102 66 89 49
-1.721386 3.104861 3.045005 92 75 65
-2.512943 2.098761 0.925320 148 134 123
0.811753 3.036948 -0.368856 41 28 19
1.950822 2.940596 -4.832496 149 132 124
-2.704721 6.870839 3.261782 235 216 203
0.927584 3.982688 -0.664582 33 27 21
-4.209304 9.606462 3.679914 193 177 157
-5.003701 2.425287 2.739537 248 233 219
-0.599177 3.662280 2.953211 89 70 53
1.219994 3.487352 -0.671043 33 22 19
0.230403 4.560932 -0.412996 145 141 111
0.054079 3.386812 0.209374 180 124 77
0.428408 2.839272 -0.480007 172 170 155
-1.637905 3.218087 3.234799 107 91 76
0.864592 3.366886 1.222826 148 160 172
-4.358807 8.567535 2.972747 237 210 189
3.361636 -2.653221 3.145372 169 156 150
-1.735232 6.176594 3.110242 135 113 89
-2.470641 2.415304 0.376600 211 207 197
3.184095 -2.286150 3.276434 185 163 146
-2.294427 3.344496 2.817863 121 104 88
-0.632982 3.342661 2.951865 119 105 94
1.336955 0.311061 0.421026 77 68 62
-2.764584 2.980608 3.720648 165 144 127
-0.671959 11.881621 1.601111 228 214 185
-2.257837 3.589923 2.491137 254 252 240
2.606935 3.260772 3.390351 253 252 241
-3.633209 11.270378 6.760302 146 127 112
0.105065 4.952797 -0.490258 46 38 27
-2.744433 7.117349 0.854077 251 222 204
-0.051605 7.025027 3.370268 253 238 215
0.549915 3.416255 -0.406330 150 85 49
0.383593 4.249640 0.421093 224 243 183
0.495648 3.468338 2.939094 232 215 197
-2.467599 3.265811 2.874600 123 104 88
0.432948 2.790831 -0.497896 44 41 19
0.429489 8.336450 1.870614 249 233 212
-0.950051 -1.777288 2.811522 225 212 204
0.504689 3.459911 3.015213 134 117 99
-0.499995 3.254191 3.028058 165 149 134
0.044639 0.183395 3.396409 170 152 142
0.666586 4.926538 3.365134 191 175 175
0.079534 4.314163 3.149582 243 219 195
0.087026 3.323588 -0.067492 142 95 67
-6.308965 10.503016 1.018167 121 97 82
0.237649 3.906760 2.945378 214 192 171
0.365721 4.764772 -0.322193 173 160 144
-1.646980 2.793402 0.598753 217 201 186
1.461975 0.005743 1.315033 170 155 146
0.686271 2.775921 -0.424774 74 65 47
0.851001 4.839258 0.915208 129 124 130
0.689387 1.241817 0.047831 164 98 50
-0.797249 4.364919 3.219979 215 194 173
4.065726 -3.520631 -4.902326 0 0 0
0.560210 4.371635 0.544630 116 130 102
0.326825 4.474127 -0.327314 18 10 9
-3.155117 6.986661 1.047585 182 156 139
0.658115 4.678063 0.813741 190 188 164
-0.633919 10.310760 3.177128 188 176 159
2.657930 3.242129 3.334837 223 208 201
-3.158075 3.910043 -0.114244 10 29 53
1.023329 3.537187 0.551954 111 103 96
0.373789 3.210783 0.296104 189 135 106
-2.204215 7.467123 3.420326 179 157 134
3.007665 0.855632 3.401090 214 201 195
1.567866 7.267360 3.424861 164 144 113
0.800419 3.515814 -0.307187 103 54 18
1.735961 0.471752 3.440953 180 158 147
-0.738949 3.267892 2.785945 135 119 106
-0.179469 5.387250 0.342333 181 156 116
4.472863 3.999718 3.985240 134 124 115
0.823164 7.172353 2.219335 224 207 181
-0.139830 5.974184 1.404696 220 217 186
0.309181 -2.587920 2.737780 218 207 201
0.550719 8.570312 1.867806 108 95 87
0.918311 3.493227 1.214658 121 120 125
-3.601633 4.027797 2.960115 203 181 167
-1.670113 -2.112479 2.490257 134 123 114
3.141299 -0.372404 3.345903 185 161 149
-0.233283 5.014904 2.234749 253 237 218
-2.314871 3.331772 2.897287 106 89 81
1.196663 -6.858618 0.380426 123 121 129
-1.395687 5.840086 3.083072 213 188 166
-1.378666 3.147773 3.027304 109 90 75
1.385034 0.812674 0.751611 98 86 91
0.614012 4.359754 0.653642 110 109 117
-2.048258 4.825527 2.893957 205 179 161
-0.886834 12.499082 1.772557 133 118 98
4.354327 2.028440 3.369968 138 127 111
1.108625 3.879383 2.853501 154 135 105
-3.064242 6.930931 0.964109 223 214 193
3.376857 6.525892 0.606177 79 70 60
0.543485 5.202018 0.795845 139 118 123
0.109445 4.698388 -0.405701 168 189 136
3.924706 -3.379705 3.219408 213 200 197
0.241216 8.877602 0.837998 228 208 192
0.499036 8.934802 1.022360 90 79 62
3.889539 -3.241416 2.834415 200 186 183
0.861869 3.598726 1.244028 135 119 125
-6.125567 11.311825 0.416451 216 175 145
0.654104 3.748067 0.552665 127 111 121
4.631209 1.074899 3.474880 179 172 162
0.194748 3.240141 -0.450771 160 102 52
-3.437005 7.334730 -0.097951 177 149 109
3.588521 2.651457 3.067241 200 188 174
3.529423 4.077851 3.140570 137 129 110
0.812766 2.768212 0.537779 247 223 212
-3.246507 6.990003 -0.272544 138 106 89
1.861171 1.679352 0.120055 199 148 101
0.632044 4.753692 0.900496 120 101 101
1.937086 7.357413 2.720977 236 223 198
0.827709 3.418263 -0.271646 68 32 19
-1.700841 2.951281 3.219497 0 0 0
-0.284208 2.553738 3.279140 214 201 193
0.519312 5.432551 0.914709 91 78 72
-5.125164 5.938430 2.437150 253 249 246
0.977856 2.090513 0.685080 131 131 143
3.144670 -2.140849 2.873386 250 240 239
0.449685 10.447039 3.356938 191 175 150
-1.349560 3.314734 2.418391 168 146 130
0.518683 5.467808 0.515022 192 177 174
-1.216054 5.712625 -0.283695 156 141 136
0.266733 3.453825 3.084645 151 139 125
-1.086394 6.796648 3.331649 196 175 154
0.710025 4.582994 0.688447 181 227 183
1.832582 5.772010 2.442930 166 147 130
0.601038 1.468843 -0.409427 194 126 65
2.205340 7.365667 3.380718 166 145 116
-2.131309 2.666132 2.857095 173 156 137
1.454773 7.085244 3.335296 167 147 118
0.387986 4.313744 0.437558 96 200 107
0.678643 2.782289 3.499280 252 252 244
-2.007491 10.132132 3.130359 219 199 175
-1.911181 4.335544 3.216762 161 140 123
3.323897 0.162112 2.993252 209 196 186
-7.600471 13.540347 3.451058 230 212 198
0.587146 2.557465 2.094013 190 167 152
1.864054 4.130167 3.000779 190 174 151
0.865143 2.771265 3.381421 250 250 238
0.096124 4.256651 -0.379783 42 34 32
-0.645539 3.586171 2.806412 188 175 159
-1.407132 3.517005 2.886140 165 150 131
